40.8350389491 57.3224357213 65.0375393332
43.9380070075 49.5000000000 50.2586638618
56.5000000000 39.8781261000 30.8657238323
18.2150176188 52.7776612529 35.9725799561
40.1890505628 56.0687866211 39.0405905218
61.0000000000 13.7249948422 25.6849528862
39.5137710487 43.2895525464 62.5925827026
11.0604727756 49.5000000000 36.7099483012
30.7754261097 4.1516150948 23.4725799561
20.9788478042 4.5000000000 30.8023337265
43.6909980774 51.7286993253 64.0181438053
11.3164231699 61.0000000000 34.1573034416
56.5000000000 46.2580039204 39.2798720650
30.9800014496 54.3645215932 63.1695412539
8.5000000000 38.7259930426 24.4184853623
60.4906974172 14.0810401674 32.4933448118
54.9907850114 59.1777554151 23.4725799561
37.4336091705 49.2559060834 46.4166739248
3.9556255486 60.0000000000 22.6559244404
25.3937718210 47.3948577932 40.8510459948
23.0000019073 60.4238850174 32.5369284056
39.0959051361 55.2420922863 38.3378691497
51.4033479284 28.6707978735 49.5692355822
32.1982201351 49.5000000000 33.6776360172
5.0000009537 0.8762171625 15.8825406518
31.2010449100 49.5000000000 34.3374595406
36.6795563025 52.2925592123 62.5925827026
3.0000023842 48.3257763474 14.5771155313
56.5000000000 27.8507532459 39.8500685585
31.6758564298 49.5000000000 24.9754038590
25.7433117170 49.5000000000 30.2163963443
50.4873032065 26.8307234465 53.6315887029
0.0000000000 57.0691584715 14.7110361868
62.8321354591 49.9550203663 15.0279729189
27.0934537905 17.2110110025 31.9725799561
44.2622226030 8.1775742380 31.9725799561
48.4345424110 2.9999985695 15.0556671859
54.6131913381 65.0000000000 18.8078418815
37.9643039955 42.4238288033 62.5925827026
36.2679867996 25.5000000000 45.4060708098
3.5000014305 59.2678980736 26.4364428015
26.8743959796 59.4735516146 27.4725799561
46.4437417458 20.5539392043 31.9725799561
56.0638330210 36.3386641568 32.6856557759
43.3528940915 51.0673752251 23.4725799561
28.5479989777 40.5000000000 56.3882574036
35.4445596937 25.5000000000 51.3590195881
3.0000023842 27.1640961220 18.9476452713
50.9282239845 25.5000000000 46.5206017745
7.1062722139 21.3564520518 31.9725799561
46.7469221041 2.9999985695 22.8903382977
33.2083335974 56.0961743652 65.5088069334
36.0000000000 25.4705212900 37.0014916889
30.9378411651 42.1845043199 62.9468541017
47.6874379915 37.0054226865 56.2667562458
28.2478654172 53.2500622627 61.5975571139
8.6161528982 65.0000000000 18.3434973065
24.0588091024 49.5000000000 44.4460134686
4.3002698141 12.3494227730 34.6985335729
63.9949110517 10.4272491978 23.4725799561
36.3703987566 17.7687854767 38.2707023497
40.7189698586 24.3240432020 31.9725799561
32.2478625417 58.5687866211 38.4277157527
6.3950170393 65.0000000000 15.1127940508
56.5000000000 39.1790695645 32.6350771472
11.5404048082 42.4620611522 33.2548018294
43.6242233004 49.4767705912 62.6475834187
54.3343144580 52.8512575796 43.1068936512
26.9379228918 47.5051989698 64.7256587122
11.9099428311 55.3671771552 34.8825194938
24.5983081615 61.8347117964 23.1378673147
6.3045173785 25.5000000000 33.9962090890
5.0000009537 1.0878688958 17.2345581577
55.2059743864 49.2940256136 36.0283733292
48.0466558264 46.3113893516 54.4237766732
0.0000000000 10.4342615479 20.0200975986
34.6312806825 49.5000000000 32.1516327720
59.7938794070 6.2938770180 31.1405261796
4.0000004768 28.4152763474 38.4058765156
48.5000000000 53.8997009791 52.2075699820
32.7524500045 58.5687866211 39.6528028964
24.0187570667 17.7687854767 37.1321184024
25.5777581268 25.5000000000 33.4817517317
13.3972543524 4.5000000000 25.0149545470
32.0974286501 25.5000000000 38.7094243645
11.8212286170 5.3472830241 34.9725799561
61.8936989547 48.3756265615 23.0788810014
58.7337811090 65.0000000000 14.7547843047
49.9071011456 50.1491451716 23.4725799561
52.0084375714 4.5000000000 24.3421522993
11.3639711101 49.5000000000 35.4637245692
25.4938359707 28.7598736851 55.7324536412
31.8231616080 49.5000000000 42.7534092506
29.5308614285 45.2458763500 63.9761155189
61.0000000000 8.0284167360 26.1809132400
46.5000000000 56.2545527367 48.5806061137
27.2640555385 49.5871032392 41.0725822449
58.1028498833 15.6682979629 34.9725799561
57.0715571104 15.1909658081 34.9725799561
65.0000000000 7.0665728101 15.2791184963
53.8400885354 65.0000000000 15.1649198691
4.7685465184 6.7314530166 26.5813661523
56.5000000000 36.5118599463 44.8676181312
23.0638502168 49.3623105853 48.8974693162
56.3761529535 64.3528425196 23.4725799561
61.0000000000 7.9101357198 30.6925964250
23.4174941955 43.2225520665 57.8914441427
30.9800014496 53.1832227120 63.9245786906
8.5000000000 38.4822730722 39.8920631677
35.7587716994 25.5625623858 41.0398479529
2.6899790680 7.0754323425 23.4725799561
10.0000019073 55.0368798146 30.9471979508
48.3052129718 58.4625614629 55.5386288923
42.2432972529 58.5687866211 36.6860212546
38.6242626222 25.5000000000 47.0855094525
38.6699165251 25.5000000000 47.4641060793
32.9027979702 49.5000000000 41.4463443190
25.5323911481 56.0687866211 39.1040428014
53.2893761876 49.5000000000 40.5593488622
21.2506115355 54.5241083941 41.0725822449
21.7779876333 4.5000000000 23.9857079756
42.9727866537 22.6079150326 38.1988267886
8.5000000000 36.7347079177 24.7828579829
39.4452221160 31.8742031785 56.4725799561
61.0000000000 21.2783897297 30.4276033162
40.5093076618 30.2734285848 56.4725799561
5.0000009537 64.3108044725 22.6619674601
33.8658965401 12.2315701880 31.9725799561
20.4658468679 60.7144186935 35.5067344032
36.2923845278 50.7367836946 62.5925827026
61.8547105002 20.2706465157 23.1178697161
13.9458246942 0.0000000000 19.9450250837
37.0848833148 47.1696847919 37.6991475126
47.8041901900 8.2865783713 32.1367382088
14.1423706768 48.7547980949 51.4544107176
28.1758624588 49.5000000000 33.6559141502
4.9525593752 60.8229455604 14.0515762806
20.5358655727 19.4949791597 31.8451180897
54.7854504602 54.5243135570 23.4725799561
5.4972555047 24.9895110343 23.4725799561
60.8463681118 7.3463665592 31.2553429035
40.3467102184 58.3549494414 37.4476281104
18.7629372262 61.0000000000 27.1702231215
28.7117532117 49.5000000000 30.1920896126
18.0000019073 56.4072248139 45.6115156080
10.2014896896 61.0000000000 31.1076484432
15.6452284283 25.5000000000 41.1158207672
45.0191151335 25.5000000000 37.1913430262
51.5264832870 49.5000000000 38.3231185128
61.0000000000 11.1354395276 29.8409502378
14.1642774225 38.2509267277 51.4709179718
47.7156188979 25.0737356081 31.9725799561
9.3081044119 48.8081033843 28.3273718103
4.0000004768 11.6307251567 26.1837538027
65.0000000000 12.7342191106 21.2616530784
44.3109521475 58.5687866211 38.9664917523
3.0000023842 23.1634498394 18.5779560830
3.8943380579 54.4441382076 27.4725799561
0.0725726012 7.3565806178 13.7132960211
64.8835354761 10.7385451134 23.0890444799
3.0000023842 34.3215667842 19.3672297868
39.7241274597 38.1522122340 56.4725799561
56.5000000000 47.6993524734 43.0080712410
47.5830033269 49.5000000000 28.8837552139
28.7061663610 23.1154650663 41.0725822449
36.0000000000 20.0276665556 37.6468623060
6.3792366879 25.5000000000 35.6114565663
42.5655818331 49.5000000000 32.2750832565
46.5829830077 2.9999985695 15.2765779621
25.8953547497 54.2027766838 40.5725784302
25.4132312069 3.0522143321 23.0247954697
5.0000009537 3.0522254141 19.8569345527
6.7612193311 5.9551221012 32.0160953065
26.0800018311 49.4351301984 63.8723726044
44.5067402073 49.7031290017 23.4725799561
46.6237753899 24.5847413799 31.9725799561
42.6991409489 4.5000000000 31.1512802601
11.5515846296 40.8249864558 31.5333296194
15.6021325102 25.5000000000 33.5428786863
3.0000023842 48.4490636612 21.7988475735
58.6501966842 18.8829913400 31.9725799561
44.3193273634 61.3729048584 23.4725799561
56.5000000000 41.7722546584 34.0434518220
16.8248268427 56.1943368482 39.4127191438
23.0241388865 56.2655266150 27.8825004559
55.3252737044 56.4778859322 23.4725799561
65.0000000000 9.3584668265 20.6624750591
41.5704010014 51.8544596698 23.4725799561
3.0000023842 35.5972934226 14.0472214605
16.0000000000 57.6282413371 49.2597238598
53.8723170499 43.6128287303 50.4456955043
48.1939548617 29.4780483706 49.8665331145
37.2869577896 53.2383000095 41.0725822449
61.8603875421 60.0000000000 14.7053273834
5.0000009537 3.8460413765 20.1267819621
62.0000000000 18.4095473734 16.6926338231
22.6709616534 2.9999985695 15.0320018658
43.8128625889 17.7687854767 38.4506003479
58.7123055619 28.3894880562 23.4725799561
62.0442066675 56.7940012048 23.4725799561
26.1603008774 55.6395284625 40.5725784302
8.5000000000 31.5723317353 44.1653219378
62.0000000000 29.0202459591 17.8312826991
25.9000015259 45.0694869247 56.2900668011
7.0957391531 35.3009070101 38.1450294650
20.0444688889 30.9994088935 25.7681306402
8.5000000000 43.0837289248 28.0229447718
19.1993930599 25.5000000000 37.8982720602
3.0078393321 32.5485681235 22.9804168759
16.0490731430 62.0000000000 20.4642279402
48.0956102033 52.6174716565 61.9348370534
48.5000000000 55.9641987253 42.3234767620
25.7139224090 49.5000000000 49.9180454687
59.4740277682 65.0000000000 18.7041781071
7.4466464498 4.5000000000 26.5715122582
39.3189346767 60.7835116071 23.4725799561
50.0000000000 1.1433983352 15.4084205112
7.3753123057 27.6631576341 40.5127991957
41.5900001526 42.8443434545 61.8677545216
62.0000000000 19.5945518180 18.9277692142
34.5404049793 19.3290906376 31.9725799561
44.3273606221 35.5045984090 59.0125173457
22.3856660277 48.4145954787 53.5579844774
56.5000000000 28.9127708284 38.8975945525
44.1766016397 6.5781770548 31.9725799561
9.9669890557 34.2243811594 48.3080346063
62.0000000000 28.2766229296 18.2024040270
46.9080810890 52.2793697385 23.4725799561
48.1194718397 61.9365985692 23.0359813868
8.5000000000 36.3615583723 38.4701243042
13.3255596271 25.5000000000 42.5131505868
44.0459851189 45.9370075837 54.2809791892
38.3299773919 49.5000000000 33.8557877493
12.8609820685 29.4015885941 51.4795927566
50.3506860457 11.8562867512 34.9137859516
33.9762909367 25.5000000000 44.4649866448
19.3890103918 61.0000000000 27.2541287582
27.1690207871 42.0637055476 60.1349728593
5.4809266479 64.9809247769 15.6974044698
39.3615113332 52.9787720605 23.4725799561
40.7180776670 52.5687866211 62.4614962863
3.0000023842 20.3009039486 21.9816212661
18.0000019073 57.6600412549 51.8956418686
31.5340983737 25.5000000000 35.8701582340
57.9927860504 13.6177728724 34.9725799561
41.0285578306 53.7208115071 41.0725822449
40.7877188803 49.5000000000 30.2895790525
37.9923695956 21.6512572752 41.0725822449
58.6258385684 16.5343656806 34.6156923564
27.5143348395 62.0000000000 20.3369105926
36.5547890308 49.5000000000 52.4341756823
38.4648199554 19.0489418679 40.3527364308
44.6556673789 58.5687866211 37.8680287708
21.0500011444 51.8766917636 38.6025348847
3.4693476036 19.8511603091 23.4419260707
49.2034029024 35.5433948908 54.8399665660
4.0000004768 28.9848394767 23.5118497792
26.0800018311 46.8986256489 63.3499163570
4.3089089433 7.1910902994 26.8429190846
14.2618331536 49.5000000000 38.7708626119
25.6854139712 56.0687866211 37.4364871262
10.1313411829 4.6040080033 23.8685717543
45.5361393194 49.5000000000 50.3104938962
29.0000019073 20.6076612096 36.9407594230
24.5152426278 52.7915442544 63.0953391152
11.1631544172 30.3384463124 26.2501130481
54.0918271339 42.6626962064 50.2390975958
3.5000014305 58.7301735151 26.4213740949
15.6763762672 61.0000000000 34.0949556047
62.0000000000 26.3890336140 17.9902548305
43.8055745811 3.0972921363 13.6830856588
56.5000000000 47.8462805025 26.5260380265
23.5667213833 46.8894265485 55.0831534076
17.0511853876 36.5073311132 53.6463594051
29.5000019073 57.4345738242 24.7795819691
62.0000000000 29.7944872525 19.5730660929
48.5000000000 57.5179730911 54.7296302490
56.5000000000 28.2661219258 44.9470024846
48.3733245213 4.5000000000 28.1524964693
56.5000000000 29.5232837173 28.5279879731
38.3121620344 25.5000000000 32.8440093118
51.1755065130 25.5000000000 46.1415068621
37.7353758863 25.5000000000 32.8163221451
9.3883322676 14.2604207608 34.5647894241
8.2886036515 64.9552703900 13.7676600404
28.7744174905 60.0358597845 27.4725799561
47.7498200983 4.5000000000 24.7047249636
60.5957760869 11.0238724219 23.4725799561
62.0000000000 20.7716138531 14.3428206683
56.3767479029 26.8767461522 39.8984132406
17.9331040865 58.5687866211 40.9637133735
4.4383934409 7.0616058842 25.8547413355
7.9165602521 5.2435772413 32.2018814002
3.0000023842 18.6076369402 14.6463450508
6.0472041024 15.9159809637 34.8225476298
15.2061943261 5.9323021624 32.7551722158
1.3162249840 4.9999990463 17.0087874280
22.2078082348 2.9999985695 20.0546749654
8.5000000000 47.6064474766 27.7251426068
19.1311324402 25.5000000000 32.7172847382
53.5419663811 40.4092748647 50.7566140553
27.5696407165 46.7362925604 62.5925827026
4.0583954455 10.8325435914 33.3463697664
25.5000019073 21.0618691537 39.9654368172
46.5000000000 56.3604111094 42.7910591410
16.0000000000 57.7266346861 50.1186917772
56.4583947398 48.0416052602 34.8888482004
22.8000011444 43.3413654905 59.9883154586
37.8141290695 62.0000000000 21.6697201305
16.0000000000 55.0878141814 40.6050920569
11.4774664323 49.5000000000 36.7565008437
45.2779236921 2.9999985695 15.7929514317
24.6482566420 25.4282093451 31.9725799561
22.6580089778 58.7548461324 33.3145695058
65.0000000000 7.0908228220 18.4112443911
5.0000009537 63.0514587755 21.6477303442
0.0000000000 54.8187270016 20.3216100972
55.4745876297 52.3788956774 23.4725799561
21.1457625010 58.5687866211 39.0361423603
8.5000000000 47.2179298356 27.4106079400
13.8470055879 49.5000000000 38.9645360830
18.0000019073 53.2113390041 58.0096450759
56.5000000000 33.1779136241 44.8330351979
48.4508709597 36.1273681782 55.5482317422
64.7244651357 5.2244646102 18.7405884442
42.8496728299 20.6069110250 37.5717311830
3.0000023842 40.5348492081 15.8074487789
56.5000000000 35.2336244091 27.9392699224
2.8961013337 15.6122411794 21.1678038612
32.6446121607 32.4926815014 56.4725799561
9.1549223523 0.0000000000 15.0383425251
41.2963627960 49.5000000000 48.4317892807
42.1602900860 58.5687866211 37.5329508323
36.8477789194 58.3524126857 61.6262049525
5.6184282572 40.1116153013 23.4725799561
51.7678197399 22.7728699916 31.9725799561
46.5000000000 54.3395135625 49.9805459760
6.7022556858 5.9964088303 33.0375926216
62.0000000000 38.3669135197 16.9339904575
38.4601776258 2.9999985695 17.2807527041
14.3208317672 49.9131365160 35.9725799561
27.1496945544 49.5000000000 33.5547454856
43.9691548695 52.8444193733 23.4725799561
27.3224814708 6.5320268413 31.9725799561
48.0806421785 55.8012095087 37.5598599178
37.5751052880 45.0955769270 62.5925827026
56.5000000000 32.0014963520 31.8676170219
13.8750387460 28.2195598754 51.4256616280
45.2894961442 30.1633600007 54.2254463863
28.8649714178 2.9999985695 16.4586759441
46.8752103143 55.0304539726 63.1800761855
56.4281313854 44.9097182850 23.4725799561
56.5000000000 38.9230941698 31.6848595957
56.5000000000 43.2695366487 38.9719298294
56.5000000000 33.2652105324 46.5258581050
9.4022314288 26.0977689583 42.2544469292
56.5000000000 36.5237752212 28.7159509654
7.8199679804 17.7113798077 34.1392771751
61.0000000000 19.5228602447 30.6818904918
39.5744734703 29.0293084639 40.8404590817
58.5163765353 65.0000000000 21.4131428327
56.5000000000 34.3089138380 36.4934134873
10.0000019073 50.3707624429 28.0890212636
64.5175242362 53.6635742941 23.4550557199
56.5000000000 30.1362393168 28.2453309485
56.5000000000 33.0495414733 30.8900384679
9.9197571717 0.0000000000 18.7925240345
8.6893965099 55.1501099723 27.4725799561
14.5880148980 4.5000000000 29.3803010384
55.6230161237 36.4377882669 33.0000424056
8.5000000000 41.1019356752 46.8065262620
46.2675820743 42.2129624478 56.4725799561
16.0000000000 56.7761997055 53.0625275436
35.0114835644 49.5000000000 26.2450005205
48.0669140039 29.8537038579 55.9096020700
53.3918293709 25.5000000000 35.6282021768
4.0000004768 20.9430669916 24.9403185916
19.2140136998 4.5000000000 24.2571811442
43.0334425079 17.7687854767 36.6815876861
45.9237373537 57.2887882804 23.4725799561
46.1597926649 49.5000000000 33.6020032481
8.5000000000 43.8823414373 45.9316640566
8.5000000000 40.1291180415 26.8468334479
22.9471353907 29.1743069214 56.1468868775
29.0000019073 18.4037970710 39.3855574948
29.0000019073 19.2168810154 39.8520097417
37.8112386851 25.5000000000 47.4716567414
49.4458983056 57.5847363035 23.4725799561
28.7604759319 49.7550191152 41.0725822449
53.1083963465 45.7071217617 51.1646803305
62.2802409865 13.6135638702 23.4725799561
5.0363300756 64.5363290526 15.2304101905
64.5716502791 52.8980946577 23.4009296769
41.1024778192 46.4047981048 55.4741110205
0.0000000000 54.4536845337 15.2162485618
14.0724767979 39.7286360778 31.6737512621
21.1092511455 47.7896979521 54.1828820039
3.5073306998 38.1293530284 23.4725799561
22.4420142691 7.7479287862 31.9725799561
34.7245779323 25.5000000000 49.4900652214
45.0302710875 49.5000000000 34.2097780523
59.8790522575 6.3790499361 24.5009885803
44.1921344793 25.5000000000 50.5785382102
36.8977174624 57.1094038788 23.4725799561
48.2041553337 52.6234888864 54.4416497056
10.7147985662 63.4370422912 23.4725799561
31.1826650184 25.5000000000 45.8130049621
16.4882762221 25.5000000000 39.8136875018
62.0000000000 31.4367154843 22.0385281192
45.6741919438 25.5000000000 46.6104803903
3.0000023842 46.5026905211 22.3085306909
8.5000000000 46.9523256211 33.4051035586
0.0000000000 13.4012628708 14.3304197974
59.1640213336 59.0756652048 23.4725799561
51.7806799438 25.5000000000 35.9097186595
41.3564627788 53.3447728148 63.6485676757
60.0000000000 3.2430712780 21.0216345237
58.6026000900 26.8841078776 23.4725799561
53.3788101794 25.5000000000 50.8427324450
49.9056037665 2.3522963152 14.4124143018
4.6133704167 25.8866296152 31.4269886596
35.4807011361 27.0772673008 54.0498472568
5.0000009537 62.9296136409 17.8170186032
35.9498103547 52.9341165426 65.7719788162
4.5915606725 35.0915599136 36.2621549691
20.9390064917 46.1310082538 55.8415717023
52.7253242735 49.5000000000 35.5850428746
44.9860179015 43.9494399344 56.4725799561
3.5000014305 58.9851550175 24.5146480587
3.1225318175 34.1552633724 23.0951089511
3.6281264158 5.7938696120 23.4725799561
36.4271368712 43.6439608174 56.4725799561
56.5000000000 39.8128174070 26.1897569351
0.0000000000 8.6240530081 18.1845638231
46.5000000000 57.1695842707 51.1608430141
62.0000000000 22.9129362465 18.3218998242
8.5255447232 44.7681030343 47.2218288307
10.6324098884 48.7293470283 48.8094659967
45.1470739469 2.9999985695 17.1999307795
29.6204279416 43.9767653211 56.4725799561
4.9806905994 25.5193103082 31.7634521262
9.4571955055 61.0000000000 23.9912183097
10.0000019073 55.4933235583 31.6796941362
59.7854619498 9.9061108417 34.9725799561
41.2335770599 11.2169967729 31.9725799561
0.0000000000 56.8900040784 22.4234446087
51.7805866298 0.0000000000 15.6850248536
15.4319459693 25.5000000000 39.3259436336
37.8794967634 49.5000000000 43.4581201772
44.2782518299 52.5687866211 62.2053249865
4.0000004768 11.4314544105 27.5633853650
8.5000000000 47.7818681114 46.8004256018
14.0964039431 60.1332488764 28.5849473873
14.0114162855 25.5000000000 49.7440473498
24.6179229791 53.9143121270 41.0725822449
43.0632848639 62.0000000000 19.2763746682
25.1571886871 49.5000000000 28.7276509625
61.0000000000 9.2820017065 29.9493387401
47.0416639288 11.9762184405 32.4083901576
56.5000000000 28.1115671360 31.2846881466
17.1950739408 56.0597782524 61.6360897558
11.2574193648 0.0000000000 17.0592137745
29.7112631513 9.3676217730 31.9725799561
40.7162323318 4.5000000000 30.2486334304
39.3503149622 43.6409557217 63.4650870296
3.0000023842 32.0154522726 16.6236155135
29.1953083458 42.0271517149 63.6168334556
56.5000000000 41.9414602257 30.7641722470
20.9024193730 6.9241541494 31.9725799561
8.5960562783 4.6044391041 31.5770177504
46.8230219513 58.3918085724 53.8242461327
36.8128051541 40.5000000000 56.4335178478
23.9735891358 40.0056537504 61.0524942285
3.0000023842 48.5479556814 22.2234176229
56.2071750758 48.2928249242 24.9226860248
8.1728687048 5.1240586328 32.2412017055
25.5000019073 23.8549845409 35.2870480527
0.0000000000 56.5808778424 21.1650806078
52.7181388458 49.5000000000 38.7720477140
3.1284769220 22.0584345288 23.1010544106
60.6939201321 7.1939184583 26.0983290401
3.6206970423 43.1649780363 23.4725799561
17.7716779726 49.5000000000 49.2646436916
2.9974494889 11.6963663597 23.4725799561
53.9625102978 58.3777560192 23.4725799561
34.9516257809 25.5000000000 34.4896100065
45.2771372181 53.5899595818 61.2797351552
14.2908273309 25.5000000000 45.5459702704
13.7123377485 60.1135139687 31.1887466418
4.7918830700 25.7081173875 30.2418157421
49.5000000000 52.4333890336 43.8959945408
48.5000000000 53.1432611606 60.3723329175
39.7064968754 39.1605260017 56.4725799561
16.0000000000 58.0624024842 50.8928204823
13.8897328827 20.9174757130 31.9725799561
27.5835362511 21.1166462441 31.9725799561
45.9421000725 49.5000000000 51.1645396120
4.3209331770 33.5341717538 26.3112879572
8.5000000000 36.1459172467 24.9138426566
35.2932319641 48.9080451749 63.5891092071
56.5000000000 26.9365292790 27.7350524660
57.7868271393 6.2466949419 34.9725555013
47.5749677766 23.5548417196 31.9725799561
13.3692695048 60.4973398403 29.6430508229
0.0000000000 10.3824001259 18.6951532189
25.9578516318 55.9965379417 61.7309525937
25.7865075998 29.7858882498 56.4725799561
3.6695882050 26.9831425744 23.4725799561
54.4353854993 33.6576768754 31.6752168007
49.1389008944 52.0000000000 48.1047363213
43.1759836755 62.0000000000 22.5440192771
3.0000023842 32.8244702380 21.3897889525
29.2286280250 25.5000000000 35.2396911424
8.8940564929 18.1550689324 33.0310884862
42.9205017090 31.3586200369 56.7962827393
22.4950008392 35.2651317614 56.7654923289
35.1649346027 43.7671323280 56.4725799561
57.5466042413 5.4704539353 34.1502744281
3.0000023842 17.2470196244 18.2254313154
29.0000019073 29.1121352206 37.2585793069
17.7387232555 8.4735391545 31.9725799561
18.0847575104 2.9999985695 15.6584071087
40.1811523812 56.7758496288 41.0725822449
54.7852563427 34.9043589757 49.5864577643
61.7329695345 19.9704255355 23.2396104216
64.8704299557 57.5513827624 23.1021500004
26.0800018311 47.1702912300 64.3211416010
45.5906539837 43.8469218827 53.1606014471
49.9593898265 62.8484380221 14.5665814447
4.1895869116 54.9139428376 27.4725799561
19.8407432113 29.9484498378 55.7484422368
31.6430932221 21.2061610259 31.9725799561
63.5845870018 4.9999990463 20.8460044591
8.5727505307 40.5713618670 31.2291767993
8.5000000000 40.5945788015 30.8541383637
26.2780852786 4.5000000000 27.9094617402
50.6924216164 35.5657517151 53.4385359657
16.1254571402 52.7511704529 45.3648688886
14.8463350309 25.5000000000 38.0374764938
10.7487492207 23.2101048828 31.9725799561
17.1592664950 62.0000000000 16.8544860549
5.0000009537 61.9846850837 21.5642162257
48.2747817678 58.4848690666 47.6306695593
8.5765732696 48.0765731722 36.4677820640
4.0000004768 21.9859062935 27.9356626829
57.8121556098 10.3792280522 34.9704064635
45.4490388378 27.1832217230 53.7689891745
56.9978153769 25.5000000000 29.4654581446
36.0000000000 24.9040736623 38.1824783942
28.0193859595 53.0787662940 63.3825611548
35.2932319641 49.3137215070 63.8903415477
36.9485812428 33.5920548294 56.4725799561
8.5000000000 41.7228440330 45.9682588706
4.0000004768 29.7703146467 39.9289469511
13.8918333210 60.0967055621 29.8216555666
61.0000000000 11.8161491263 26.8329151712
54.6298494497 49.5000000000 37.1348015455
43.8828485922 52.6999196496 63.0037145104
32.7500000000 61.3530285385 23.3863287177
19.5220675972 2.9999985695 14.7375516675
31.8349059514 3.6449920304 23.4725799561
12.9900222187 53.2981917703 35.9626002547
54.6995470465 1.2947023143 23.4725799561
65.0000000000 13.6022117617 21.9968830259
42.2400805287 25.5000000000 47.1776861837
15.3451562680 6.0296042670 32.0500641156
36.0000000000 23.0886674567 38.7078112604
56.5000000000 42.5753235438 37.7704589215
62.5042320099 49.8671579927 17.6658659787
20.3912664855 62.0000000000 19.8301976269
34.5428869593 58.5687866211 39.9458388438
8.5000000000 37.0648092845 40.4282593935
14.1823365683 11.7170167843 34.5576442729
11.3479504039 30.4606656078 49.3486635361
43.3596828955 28.4148129184 55.3873918267
65.0000000000 51.0933658200 20.4091932983
62.0000000000 46.9091927837 17.0615427431
13.0566119036 65.0000000000 21.9422255512
8.5000000000 44.4125676288 38.2450930041
43.8369997927 35.3828089464 60.6329499849
30.1711246796 42.1535678362 63.5804370827
19.6352015701 44.2761648788 55.5935548463
56.5000000000 44.9577817182 40.2469797570
65.0000000000 54.0373393067 22.0924224733
29.5000019073 60.1931539071 26.5547422095
5.0000009537 61.2640889099 21.8406030396
42.6087356086 49.1762965694 23.6488765254
65.0000000000 7.9547325478 20.6359016356
46.8360899794 7.4574536310 31.9725799561
39.5496662195 49.5000000000 47.2202052274
62.0000000000 30.0289035204 14.7156511481
65.0000000000 50.6244982600 14.1679485988
26.0082262526 53.7690633478 61.1823555271
15.5663488667 49.5000000000 38.5556275577
55.9812398966 30.9765445303 48.4608251904
62.0000000000 20.7168652281 17.9559366185
30.1515669161 51.3404373038 23.4725799561
2.8270814981 49.5389443759 16.4547462937
32.8264868495 25.5000000000 44.1271812906
51.0295221652 37.0805955266 53.1212682431
5.0000009537 63.5384276866 16.7532774644
31.9043057702 2.9999985695 21.4041415514
12.8442223548 25.5000000000 43.4581917503
61.0000000000 12.5959252471 27.3751132604
25.5819811347 49.7359958480 40.9545614911
8.5000000000 45.6202927604 33.7213700985
0.0000000000 6.6394367352 16.5981225549
48.7446317894 8.5181050674 34.9725799561
13.0932893110 5.0743904406 34.6983573214
35.2413356725 52.5687866211 62.1583915121
10.4658064854 3.7988138071 23.4725799561
57.8415183913 49.3218082701 23.4725799561
42.4397872704 20.2687854767 39.4785481982
60.1877349766 30.0289560833 23.4725799561
27.6959906561 55.2576368951 40.5725784302
34.5939456631 25.5000000000 36.4429434784
17.6814048723 46.9516016609 54.1212624800
6.3542353495 0.0000000000 16.3626934822
34.2130204783 25.5000000000 46.6259936101
53.1806842280 7.4847614089 34.9725799561
34.9502773828 49.5000000000 49.0680455536
34.8196811319 56.1240064925 41.0725822449
35.2828762313 53.3051072635 23.4655422111
56.4892386278 58.1985303019 23.4725799561
29.5830667874 62.0000000000 20.1835683666
23.4500391834 8.7164374660 31.9725799561
47.6009074215 58.5687866211 47.7733569497
25.1212923800 49.3633306941 46.3092479481
23.5207328918 11.5856858381 31.9725799561
21.6091614946 25.5000000000 51.6432836505
61.7035221129 50.5574954377 23.4725799561
33.1649873978 49.2619224116 52.7106573211
10.8915463106 8.1930476551 34.6992967961
51.3897326299 28.4368860425 49.5828508964
28.4624915945 48.3331077062 65.0173661637
48.5000000000 56.7607890019 39.9764410272
4.2718753783 33.4150051256 34.2842350077
11.7817534042 40.2872294667 31.5123522473
61.8449622952 48.5155996485 13.6345269587
23.9865168798 47.6516879294 54.3208920267
40.9000015259 45.9521329675 55.1410208783
56.5000000000 47.7804320254 47.8693799454
61.6741090102 4.9999990463 16.5568283223
27.7677196737 28.2131677518 55.1857477079
43.2980164370 4.5000000000 26.6167733156
61.0000000000 20.4398248490 30.9324411598
44.0000000000 18.4597766566 37.8630125841
48.0798915188 62.0000000000 18.4683995550
44.6329382021 2.9999985695 20.4487730152
42.5096203563 45.8492375478 63.9911981424
8.5000000000 40.5833274939 45.9105832939
36.7166639359 17.7687854767 37.8038313295
56.5000000000 30.5084097612 38.2964967710
65.0000000000 55.0369115190 20.7063318706
3.0000023842 36.9268598577 17.1214870876
41.4639639579 51.8427781097 41.0725822449
56.5000000000 29.2475726395 31.8247824387
22.4950008392 40.3647158130 59.2034396703
55.1708053786 25.6708051614 32.6988377912
23.1967704597 58.5687866211 38.0772736011
52.5680360827 4.9718159278 23.5007631284
48.3800781420 55.5794369167 61.8873169367
38.6751660239 46.6840614136 63.8147227763
53.0125356786 29.9477794809 51.2549012112
44.0685843300 62.0000000000 22.0577042872
26.7830126636 44.0806682898 62.5925827026
33.3360950693 49.5000000000 47.2704397814
31.9965609671 14.9109980015 31.9725799561
13.9850708879 51.8073490324 35.9725799561
61.0000000000 22.2778076302 28.6499165663
4.0000004768 21.4711412935 31.4645941378
57.9234328920 18.1449170158 31.9725799561
46.5000000000 57.1754801561 58.8777767849
26.1164325970 52.5687866211 62.5873282329
56.5000000000 45.3511664983 26.8279712240
28.1466251759 54.6244280077 27.4725799561
65.0000000000 12.1011992896 17.6352772067
3.0000023842 36.2783376468 19.3905516669
5.2454005201 15.3963933161 34.4972636935
16.4541625146 37.1183264506 53.1964703507
0.0000000000 12.4310928671 20.3380895685
6.5058749128 53.6511659548 27.0811029652
34.5245252220 5.2383011035 31.9725799561
54.2239276924 23.9435226227 31.9725799561
18.8924424391 14.7313508320 31.9725799561
32.2966130396 29.9510190425 56.4725799561
13.0681978730 3.3796668050 23.4725799561
15.4518361917 2.8178600208 20.4256242767
19.9578700517 43.5045241096 55.8367031908
21.6356450824 54.6662786915 34.3369347012
5.5840187023 26.9418356168 40.0356983437
18.0000019073 54.5354853807 46.4634957377
62.0000000000 40.9758554083 16.5251972859
65.0000000000 51.0319094411 14.2671016410
33.9818385824 25.5000000000 38.0955162305
17.1102352103 37.1536829986 53.6908566432
63.2237817570 55.6475755700 23.4725799561
56.3885327133 39.4072025783 48.0774904361
3.0000023842 31.9033055454 20.3578387434
26.2056636151 13.5436353896 31.9725799561
18.0000019073 57.1930754811 43.3617706084
3.5000014305 56.4480819282 26.0596405871
33.0354510515 48.6641470292 53.3084328674
32.8158066049 48.3670034569 53.6055756937
4.9768478550 6.5231518123 30.4818990773
29.0000019073 29.1880390513 38.7845354997
54.2999992371 50.4802684572 44.7603855516
16.0161244436 53.0048261736 48.6201969575
21.5984579267 4.5000000000 30.8937127672
58.6904279210 65.0000000000 20.0082098043
29.2013878582 4.5000000000 28.8933342636
6.1448935014 6.7507575509 34.6553379683
51.8038268010 0.0000000000 19.8620499935
53.6228983034 6.2116858422 34.9725799561
25.6842504592 3.5958045664 23.4725799561
51.0415657754 40.5048409759 53.1099341347
0.0000000000 7.8427791775 22.1154207623
14.7278677149 64.7721337578 20.2029911508
50.4000015259 32.9107793174 33.0899814989
19.7872036214 50.6477078718 35.9725799561
38.3859564204 56.6441682128 23.4725799561
14.6539385998 23.4292565586 31.9725799561
5.1451195246 7.4032845168 31.9725799561
39.0942259026 51.8999977112 48.7233791509
20.9579760503 62.0000000000 18.3107740121
31.4097616317 49.5000000000 33.0722220281
48.7841324671 25.5000000000 37.0771180810
9.7993973971 39.3887330331 31.8218930002
30.9958980402 25.5000000000 42.2191215530
20.8529062311 57.0608585451 36.1902549945
61.3947579989 36.6284406844 23.4725799561
13.8105090257 42.8904004386 51.2043343338
10.0000019073 29.2776582219 26.9441698598
38.4796635860 25.5000000000 51.7758280710
4.1570260247 28.1452843646 39.8222315797
16.8409859161 52.5687866211 55.1021300638
43.2766688755 18.9711121637 31.9725799561
30.0609409093 49.5000000000 33.0164432908
23.6450023651 40.1792418239 60.4364112546
1.0106808736 9.5170604167 23.4725799561
38.7423099462 48.1744585717 62.5925827026
4.2501297016 15.9730662348 31.7227075120
8.5000000000 43.3580823180 27.3930569569
19.9335229083 23.1403752945 31.9725799561
20.5327780217 40.3374704922 56.2699277825
20.7386671730 26.9655195464 53.9380995024
15.7127830571 19.6583845629 31.9725799561
56.5000000000 44.1681614480 46.0833616116
0.0000000000 12.4903795543 14.6133450953
17.4285725792 52.5687866211 54.1724877007
54.5000000000 25.7915798123 44.0417434235
29.6828369481 56.7712597195 37.1321797885
58.1694259139 65.0000000000 20.4212278356
16.7866538404 61.1800147588 23.4725799561
26.4239445354 55.2548584133 62.8434718863
62.0326317757 15.8782170940 17.9778213918
18.0000019073 53.3785119723 55.4446400147
26.5671876623 45.2266603297 58.0624125097
4.3418543075 34.8418536677 32.3288902608
56.2247401528 62.3614767072 23.4725799561
36.0577474022 49.5000000000 24.8510637828
22.9237851528 25.5000000000 41.5914811654
36.2068033879 17.8870597457 39.1908563173
26.3408269076 32.3358129705 58.9212023471
60.9012511117 21.3221900314 31.5713273137
64.8989294189 12.8625602822 23.0736505371
38.5250075926 4.5000000000 28.7443573518
48.3529638920 28.7232778670 42.7501685477
33.7944359017 11.2466439537 31.9725799561
48.2388095685 45.7759625411 53.4265617341
45.4174003628 52.6069521195 36.4301402694
18.1574190545 57.8298428763 38.3466451631
44.0000000000 42.5529364124 59.8213885389
28.4010306725 4.7726244760 23.6999549600
32.7938715796 25.5000000000 45.0914259839
9.1879268535 57.3130715720 27.4725799561
53.7024308982 65.0000000000 22.6694509106
43.9803413058 19.1025572276 36.0529197360
56.5000000000 34.0281580451 41.4064954453
8.4694049938 49.5000000000 26.5095851646
51.6970364093 49.5000000000 31.7557683233
49.5000000000 54.8922607630 49.3589287706
48.4846284522 58.1460665117 40.9634301385
29.8076682179 51.2783755640 62.5925827026
21.7997419327 58.5687866211 37.4398163484
38.9776200534 56.0687866211 39.6829544650
24.0737631141 25.5000000000 33.6981706562
16.8341399328 25.5000000000 39.6357586274
26.5915136998 29.2158905189 56.1884704750
3.0000023842 23.8263353344 19.8159687242
55.2160589597 51.1620140742 23.4725799561
17.5033080925 2.9999985695 14.5784364950
20.0039399320 45.3279513957 53.6376261564
20.2211629786 33.2183544267 56.0351084824
44.1634595551 25.5000000000 49.7776429526
7.1744221681 62.5849095399 23.4725799561
48.3209729524 58.4494474185 55.9481097284
28.3567042586 26.6672796740 53.6398596301
23.7853566357 17.7687854767 36.7006112796
46.2130880670 49.5000000000 32.3229315103
9.1206316762 47.4856153026 47.6702590796
22.2971995892 61.0000000000 31.3501807591
11.3414813787 49.5000000000 47.0118723526
38.8600629838 46.2330094891 55.7395704670
48.5000000000 55.7004483550 50.6488529636
6.4633626312 0.2124405182 23.1850200438
6.5135934314 29.9992071356 40.9725799561
49.3415928564 51.4230324608 49.9725799561
8.5000000000 38.2611941992 40.7702725506
31.2587288198 50.3392305110 23.4725799561
55.3310057196 39.9253553822 49.0728108384
3.0906408956 18.3140740178 13.6989295819
65.0000000000 52.5472122885 20.6119596400
57.9520073632 0.0000000000 19.3611344855
9.5617308107 61.0000000000 26.6043904424
8.5000000000 41.6796964646 46.9996187122
61.0000000000 17.5298556980 25.7421947182
65.0000000000 59.2996216952 21.7409501562
20.5938727530 30.4227620487 25.9608428617
29.0000019073 21.7559989185 39.9224887513
33.1792475138 25.5000000000 45.2048011621
31.0150045518 4.5000000000 28.0229497478
46.5000000000 55.1306983477 53.8577229633
29.5526971114 3.0571827994 23.0297639133
25.4792987934 4.5458795682 23.9267003004
29.6220434867 62.0000000000 17.5847348135
46.5283701909 52.9065277768 51.6260019319
64.6253563406 14.8746429449 21.4850572682
29.7812053460 62.0000000000 15.3297174333
56.5000000000 39.8982328272 42.5318368866
46.6613549964 12.8747811861 31.9725799561
28.7491600404 25.5000000000 48.3935233118
23.0000019073 52.0812809473 30.5498845186
60.0000000000 3.7127415560 15.9254283576
54.7595264511 20.5876995644 31.9725799561
22.6771139902 18.4781539865 39.7819480487
23.6983720992 4.5000000000 24.8022802901
5.8645945525 33.6908840830 26.9371336606
4.5644801528 25.9355197625 23.7392398558
60.9324190190 10.7275473189 32.9099892225
7.5502886486 6.4274693468 34.9725799561
62.0000000000 44.0804693070 18.0454280780
54.1594440761 18.6066605717 31.9725799561
53.1450361872 22.6479963559 31.9725799561
22.4950008392 34.5708349444 57.6969989584
54.3766084029 49.3265319999 23.7991119559
53.3819590400 0.0000000000 14.3255852749
15.7842149537 25.5000000000 40.2350587312
40.6830063605 27.5594095400 54.5319894961
43.6793084925 33.4991000897 56.4725799561
44.7106946958 49.2720200253 46.4005597779
41.8041139575 4.5000000000 27.7805117734
26.9385790922 4.5062786129 23.9663013312
6.4953697406 2.2156873452 23.4725799561
0.0000000000 53.0609977622 20.7769394056
5.4149995494 35.5000000000 34.5022024185
61.0000000000 15.9162554004 28.3374129892
49.5000000000 53.5140833200 47.2690788161
8.5000000000 46.4964214620 38.8373234371
65.0000000000 59.4410174488 15.8478756220
26.6142284987 62.0000000000 18.2109354231
47.2346495107 9.8056286742 33.6491980617
18.0000019073 57.5484252338 56.3109169950
9.3398925228 26.1601077058 45.7123346915
8.0091698373 23.8911274407 31.9725799561
20.7378114925 3.4832474087 23.4558278735
21.4026781764 25.5000000000 42.1492955631
56.5000000000 41.0333628410 34.0863650171
20.2922434742 2.9999985695 22.3634567597
31.4263102025 55.9238511898 63.1425819397
56.5000000000 31.3630921978 44.3210630078
31.3204570958 62.0000000000 19.7227752946
17.3213476961 56.0745113370 61.6139905474
29.0000019073 24.4185401962 38.6782616809
46.1539031414 49.5000000000 45.5317612567
56.5678815817 37.8318086689 23.4725799561
24.7227234101 49.5000000000 30.7526057072
30.9326141907 4.5000000000 25.8169151709
60.0000000000 3.9337892544 21.8442007219
61.0000000000 9.9641259507 29.1949551487
62.0000000000 18.7061389440 19.1066482176
29.0000019073 29.8630459603 38.5906268893
0.0000000000 13.6577986448 15.8165151799
56.5000000000 33.2268560543 40.9994750026
41.8122750690 7.5683694518 31.9725799561
44.0530010081 25.5000000000 42.1743912045
16.3610565248 49.5767182633 35.9725799561
36.8222600695 17.7687854767 37.4926189194
37.4385640901 62.0000000000 16.9392423072
48.5000000000 56.5090969531 56.5061215365
56.5000000000 43.9913096380 47.0661594976
48.0724595900 19.5866238714 31.9725799561
9.9945142453 49.4945123450 39.8357798446
59.6206858566 64.5402983335 23.3518937920
61.0000000000 18.2137991128 28.7278845346
52.6432293524 49.5000000000 49.9082315127
23.7474428440 52.6793347323 62.9831295931
36.4839021489 27.4981411847 54.4707211407
17.2884894712 62.0000000000 22.7618501996
4.0000004768 21.2422310209 28.4896093288
12.4896585519 61.0000000000 30.9430720762
8.9437523283 0.0000000000 14.2797273478
14.7310321714 25.5000000000 44.7917047711
29.7454157599 49.5000000000 44.4694094639
24.9783184499 31.0349998474 58.9199461592
0.7988859598 4.9999990463 16.9222067620
57.9792611363 45.0689365144 23.4725799561
3.0000023842 27.0617830044 17.6953960992
64.9184245278 5.4184243722 21.6017440974
44.6229515155 7.2107992061 31.9725799561
18.0000019073 56.9974808325 49.0017414030
55.4907328459 23.3388849239 31.9725799561
58.2048501737 47.4701267100 23.4725799561
52.6098554285 27.2490757474 51.6338933955
36.6217190006 28.1174366047 55.0900165607
8.3762729883 61.0000000000 25.4183927409
43.1401344935 35.2961885738 57.7930264992
59.6406297445 64.8593702555 16.6798860915
20.3873735151 4.5000000000 27.2138374393
8.5000000000 38.2229721207 29.1637488596
46.1748982335 53.3657542355 63.6695490963
3.0000023842 38.1493846906 21.8296142426
56.5000000000 32.0910488388 39.3495330352
56.9082579679 14.9578932699 34.9725799561
23.8416626595 4.5000000000 26.7888338789
19.1962748509 61.0000000000 27.5974966527
56.5000000000 45.6233245202 47.6919158165
2.8015599142 4.9999990463 17.7039653445
3.4601812287 17.3709937900 23.4327596783
19.8559087061 58.5687866211 40.3933830764
28.0530535038 18.0952349099 39.3990310060
9.7931238122 56.7091688579 27.5826891232
39.9278778086 18.1479744648 39.4517697865
13.5139369616 44.2057500301 50.9808514384
16.0000000000 53.5043827669 56.4537663567
11.0861687637 47.0769337406 49.1513970807
36.0000000000 27.5642656212 37.1839664743
56.5000000000 41.8120181226 39.1017586051
4.0000004768 27.4023709748 29.2097736987
3.0000023842 34.7450612655 22.8339527160
18.0000019073 57.8422824264 47.1776754219
13.9234696269 49.5000000000 44.1652417896
23.3481010329 17.7687854767 37.9442297321
56.5000000000 44.2324930157 43.0957548118
39.0483050958 14.8826748376 31.9725799561
55.1180043357 4.5978125730 33.8970602748
62.0000000000 34.6758715563 17.5798408359
22.7105426277 25.8331147509 52.8056947070
7.9651993469 61.0000000000 24.7315092959
56.5000000000 47.4538966185 47.1148415027
32.7671651960 26.8365731217 53.8091530777
14.6694937118 4.5000000000 26.0336009011
49.8964517237 4.5000000000 25.7652576029
21.6941882665 25.3085646387 31.9725799561
39.2200240597 14.9236291014 31.9725799561
22.5232684843 49.8807424010 41.0725822449
52.9933080703 7.0434339890 34.9725799561
12.8255470637 40.8191562441 31.5395493481
3.5000014305 59.4105753072 24.7779188170
0.0000000000 56.2114279677 15.7477957860
5.0000009537 64.4379565535 14.5874678990
37.1130889048 51.4208069326 62.5925827026
19.4459399484 60.1240012258 30.2691794565
1.5443000614 7.4527779539 23.4725799561
53.3427028982 25.9123697487 47.6298783863
11.0880458394 20.6398849211 31.9725799561
8.5000000000 47.1780277995 44.1139629439
44.4960953647 58.5687866211 39.9257590806
8.5000000000 38.9103014727 40.9879275988
18.7673242623 56.9699107681 41.1161111024
35.7625251164 34.5000000000 56.4072028778
8.1294641438 48.1569280630 23.4725799561
20.7734708671 61.3917404429 23.4725799561
61.9959433225 34.5741902762 22.9766366722
13.1267030072 33.4669308854 50.6890504223
44.6546405367 5.6519594717 31.9725799561
64.6896181509 5.1896175589 21.4485998203
46.5835222204 42.6060719183 56.4725799561
26.3304039970 11.0844271165 31.9725799561
24.9271608232 22.2228598450 31.9725799561
26.1777382971 45.7961151507 62.5930323307
46.8956981883 58.4644848094 55.7193626597
63.8318815666 7.3156402773 23.4725799561
36.9987342766 22.4335227671 41.0725822449
62.0000000000 38.3130302174 18.1085309769
56.5000000000 28.4676419550 28.8982833121
29.5000019073 52.2891801378 27.0397234279
0.1661512126 50.3338491241 14.9606161588
8.5000000000 38.0991795613 31.0100124519
52.9016271969 25.5000000000 46.3543315592
4.3249309409 13.5313045388 33.7710067182
21.1519975082 61.0000000000 34.3440317177
17.6932484780 58.3755400505 53.6536497935
15.0000009537 63.3184508674 20.9759635775
17.6604437981 58.4083447303 46.0712332347
20.8604426118 2.9999985695 21.5319011231
30.8719472785 4.5000000000 24.3043300264
40.1695516540 17.3194897890 31.9725799561
56.5000000000 47.8287730928 28.9417308826
3.0000023842 21.2553010568 15.8286366929
26.9906283857 4.5000000000 30.6295047708
56.5000000000 26.6586375525 24.8339768431
49.5000000000 52.1926914681 47.1520157910
20.2820566069 62.0000000000 19.2272563285
20.5854267828 58.5595619908 36.9784041887
30.3992000673 5.5498540760 31.9725799561
22.9650429847 21.1452690520 31.9725799561
62.0000000000 24.9247002375 16.7178819036
16.7517007060 62.0000000000 22.4615469010
30.9866213022 25.5000000000 42.3285394272
37.1933304689 54.1687850952 40.8349670019
39.4746633790 4.5000000000 24.9301230588
23.3153763127 25.5000000000 51.1743184475
37.2669799110 49.5000000000 24.1654246575
51.4227600690 49.5000000000 27.6145263721
52.1473339641 51.3576661213 48.6252476546
55.9767054528 43.8143817626 48.4650929059
25.5000019073 23.0669242467 39.2199349870
32.7672546807 5.5579150555 31.9725799561
40.9000015259 42.4501365977 57.8637892510
19.9522089798 25.3889311307 31.9725799561
34.2371828590 49.5000000000 47.7982095273
3.0000023842 32.9928812687 14.8198724871
7.3004195717 0.0000000000 14.5366562476
62.0000000000 38.2900352782 18.6126778118
56.3917188912 4.9832763786 23.4893026556
35.6910366372 25.5000000000 43.4601565773
54.2424112694 51.6383522609 43.0149904626
41.2856761272 2.9999985695 17.7398650480
23.0000019073 49.8716355206 30.4256086937
39.2709177095 32.8246121634 56.4725799561
12.6233743130 53.7886313322 35.5959518828
33.8864615746 49.5000000000 50.2773463754
28.0991381023 22.3464197003 41.0725822449
28.4682758560 25.5000000000 44.8569581380
60.0000000000 3.0049410078 20.3614811768
62.0000000000 18.8951631786 22.1460851358
35.3593771914 49.5000000000 32.4977470209
29.0000019073 26.3510081154 37.8470277362
56.5000000000 30.3874455300 35.5891483770
3.3673356277 4.9999990463 14.7794650614
27.8139803793 26.1421425199 53.1147224760
30.1676492077 51.6262916611 62.5925827026
7.3794343700 32.8626465300 25.2741366251
4.4992756825 22.9992735364 24.2470867882
12.9758331469 50.9401918687 35.9484111648
38.5499041884 2.9999985695 20.8271780761
47.2865713547 49.5000000000 27.9644512701
54.2999992371 54.4126037206 45.3105071985
39.7141690778 58.1575302664 36.4397600826
27.5151904045 60.9459143795 27.4725799561
38.1550102664 33.8032993216 56.4725799561
34.3199378244 4.5000000000 24.3710161442
59.9163073942 7.7916724545 34.1445411342
29.6378679208 4.5000000000 29.5658194388
48.5000000000 55.9568802837 52.8503496815
32.4624070838 55.0365665266 41.0725822449
56.0644862862 65.0000000000 22.0026201734
55.2739814636 47.1132783404 49.1264807738
59.1664023281 37.1011304192 23.4725799561
58.2431571758 25.2568461751 25.3823749053
26.2428179939 49.6878091441 38.2560894280
56.5000000000 29.8112420497 29.6556493803
22.0519969667 56.1061450368 41.0725822449
12.2768390426 0.0000000000 17.9069188586
61.0000000000 20.4383565569 27.4124067310
64.7970235650 7.9017982690 13.5704280050
20.2284812284 25.5000000000 47.1978239800
47.5772517509 52.6104378043 37.4285533122
59.8456837946 64.6543162054 20.5020856836
8.5000000000 41.2496586041 37.7682626191
46.3746946958 20.7136427373 31.9725799561
29.5000019073 51.5138383358 27.2285738424
65.0000000000 55.8582432702 15.6701598555
3.0000023842 43.0212895456 15.2013518491
36.0000000000 23.3468110663 36.0209639947
7.4000005722 32.5654319180 29.1598257429
9.9780014554 56.4408600758 27.8904740012
19.6316824767 25.5000000000 44.2932700437
51.0741585654 62.2855876807 23.4725799561
60.0000000000 61.4868944527 19.9669291631
17.3141969304 25.5000000000 49.9911003033
13.6992936836 65.0000000000 18.7674385802
42.7440274325 58.5687866211 39.5990214241
57.1956917619 65.0000000000 16.9259830279
47.5572487210 13.9997282181 34.5506915595
50.3730969625 1.3968561922 23.3456769186
38.2231303731 25.5000000000 42.3951676128
54.1061289884 25.5000000000 42.0951810450
65.0000000000 9.9479234903 19.3340398928
51.0745723796 53.9075482480 49.6980103451
55.7801081221 26.2801071301 46.5086950697
55.9463510668 48.5536489332 33.2080848300
28.1221514439 52.8804789291 63.1842737899
25.7893213102 62.0000000000 16.8524619621
35.5148000910 12.5384136695 31.9725799561
62.0000000000 44.4346385308 19.7365982195
33.5046540911 28.8390743514 55.8116536694
37.6450207468 62.0000000000 17.1803016474
11.3441411203 25.5000000000 43.3428575956
4.6788629183 58.0952272623 27.4725799561
3.0000023842 36.5021603512 20.4871066185
28.5653585881 25.5000000000 41.3573923000
39.4598462080 62.0000000000 17.2873134929
56.5000000000 28.2534715131 27.3129157842
51.0138921454 65.0000000000 22.5408678760
32.7690109515 58.3252525108 40.8161143985
10.4403088132 47.2763673935 48.6647067236
17.6126647705 61.0000000000 26.2426590988
39.4302334281 17.7687854767 36.5860762900
59.1020906892 29.5144301420 22.5826038200
22.2549325612 22.5682611911 37.4341219529
6.2908655026 0.0000000000 14.0773279430
29.5323097712 54.4901851660 41.0725822449
11.8525897454 26.8719744041 49.7289363836
25.8454590910 22.9735163517 41.0725822449
33.0227389974 48.4611133540 53.5114660483
61.0000000000 20.6652012909 27.5380362629
65.0000000000 51.2600024805 15.9055954688
30.1088793221 58.2633186411 63.4780486990
56.5000000000 37.7250870818 36.5576780453
23.7340646127 4.5000000000 29.3344122693
57.3353474374 0.4486556272 23.4212346741
12.1692621680 25.5000000000 47.3744228748
43.5971006939 36.9356539468 62.7779750743
5.9939260108 61.0000000000 25.1104799615
17.0041501430 59.4701806040 35.9725799561
5.8643931242 65.0000000000 14.5113680355
60.4859328955 23.0140661776 25.9345623313
15.4955329418 36.0923169823 52.4740910726
31.2180765197 44.7480278235 56.4725799561
7.8001441743 58.8835122011 27.4725799561
15.3761865091 39.7826289115 52.3841570748
2.6457110510 15.2796836912 16.5079701622
23.3893519724 62.0000000000 21.4486061049
49.7617843827 9.8930077705 34.9725799561
26.2957771247 3.2209435561 13.5686225975
10.3986250610 39.6645099972 31.6617499136
16.0000000000 57.3251740514 44.8887484339
6.4159176912 21.3087011390 31.9725799561
11.0972880191 25.5000000000 47.1079846728
22.2596382343 4.5000000000 31.1060799133
42.3699035067 49.5000000000 44.8797649020
14.4470767824 25.5000000000 40.8890164633
19.1558256354 25.5000000000 35.3942404470
56.5000000000 36.4275904712 44.0906241720
24.9551986710 17.7687854767 35.3231814477
30.0900114639 12.9624071887 31.9725799561
38.0422708073 62.0000000000 19.2975276635
12.4622563727 0.0000000000 16.1837360890
57.5755304842 2.9096014284 23.4725799561
